2.3292965e-001 -4.3943100e-003    NaN     -2.0736731e-002
2.3390188e-001 -6.5903600e-003    NaN     -3.5368881e-002
1.3537671e-001 -5.5437200e-003    NaN     2.2722944e-002
1.2449817e-001 -2.4646450e-002    NaN     3.4547133e-002
6.4464156e-003 -3.6580020e-002    NaN     4.4478829e-002
3.8461835e-002 -2.8261530e-002    NaN     5.1525069e-002
4.4409655e-002 -2.8341560e-002    NaN     6.1736306e-002
6.8805449e-002 -2.7216180e-002    NaN     7.5088455e-002
9.8014092e-002 -2.7925010e-002    NaN     7.1023997e-002
1.0746915e-001 -3.0975840e-002    NaN     4.7210889e-002
6.4281880e-002 -2.5683860e-002    NaN     3.1680636e-002
5.1836579e-002 -3.2287260e-002    NaN     4.5563136e-002
8.4928880e-002 -1.8843590e-002    NaN     2.7685357e-002
5.5633720e-002 -1.9552700e-002 6.3385060e-002 -7.7332138e-004
5.4870545e-002 -2.0845620e-002 6.2671420e-002 -6.6127113e-003
4.8748064e-002 -1.5926890e-002 5.5349670e-002 -6.1929016e-002
4.8161117e-002 -5.6240800e-003 5.9228110e-002 -5.7114896e-002
3.7061814e-002 -4.1454500e-003 5.0193730e-002 -1.2576670e-001
4.7151823e-002 -1.1253000e-004 4.9108260e-002 -2.2402159e-001
2.0779268e-002 4.8197000e-003 4.6300000e-002 -2.0512726e-001
2.0671881e-002 1.0488900e-002 4.7999220e-002 -1.1984619e-001
1.5434103e-002 1.9646550e-002 5.0983300e-002 -4.0440555e-002
3.0690688e-002 1.8247390e-002 6.1179670e-002 3.9756361e-004
4.0558015e-002 1.3711110e-002 7.3986300e-002 9.5271468e-002
4.0150902e-002 1.6209780e-002 9.4271100e-002 1.2268310e-001
9.3773573e-002 8.5257500e-003 1.2174090e-001 6.4392130e-002
7.7297091e-002 2.7050600e-003 1.1260530e-001 3.3268747e-002
4.7562986e-002 3.1346000e-003 9.8946960e-002 -2.4843960e-002
2.8268669e-002 7.9469200e-003 8.2371340e-002 -6.5581548e-002
1.4059768e-002 7.0690000e-004 7.1589240e-002 -3.1044710e-002
3.7252889e-002 -1.4070100e-003 7.2124890e-002 1.0265537e-002
3.2314082e-002 -5.9487000e-003 7.0074570e-002 4.5488340e-003
4.5950608e-003 -4.2470300e-003 6.4081450e-002 3.4127399e-002
1.8327638e-002 -9.5522000e-004 6.8441100e-002 6.4058915e-002
2.2792084e-002 -5.7808700e-003 7.1573150e-002 1.0934543e-001
-1.3659660e-002 -7.3896900e-003 6.9682500e-002 9.8904049e-002
4.0839833e-002 -1.3197540e-002 6.6098550e-002 2.7699561e-002
9.0191695e-003 -1.9023530e-002 6.3559450e-002 2.4206540e-002
2.6936129e-002 -1.5818400e-002 6.5711840e-002 4.1398965e-002
1.3400348e-002 -1.9477900e-002 6.4416080e-002 7.5294906e-003
3.9933776e-002 -1.5271400e-002 6.3655050e-002 5.8049264e-003
2.2014365e-002 -9.6098500e-003 6.2821210e-002 1.2474336e-002
2.1893870e-002 -1.4630030e-002 6.3233260e-002 6.0423072e-002
3.9109491e-002 -2.0743370e-002 6.3170220e-002 6.1355346e-002
8.6393122e-003 -1.7576910e-002 6.2861110e-002 9.8862192e-002
3.0091491e-002 -1.5506360e-002 6.2702090e-002 1.0818642e-001
8.5561530e-003 -1.9570560e-002 6.3002280e-002 1.0663753e-001
1.7057595e-002 -1.3794390e-002 7.0332180e-002 1.7491409e-002
1.6985164e-002 -2.9808590e-002 6.0100000e-002 -3.0356705e-002
4.2150021e-002 -2.3888840e-002 4.6908140e-002 -9.7511497e-002
-4.1950712e-003 -2.6725120e-002 4.6655650e-002 -1.3826940e-001
-4.1994755e-003 -2.6296100e-002 4.5123150e-002 -7.8218413e-002
0.0000000e+000 -2.9192990e-002 4.0711890e-002 -6.1057288e-002
-8.4122008e-003 -3.1752500e-002 3.7986260e-002 -1.0293209e-001
1.2611676e-002 -2.5302920e-002 3.7393810e-002 -5.0969027e-002
-4.1994755e-003 -1.4310220e-002 3.8910440e-002 -8.6808435e-002
1.6771513e-002 -6.3929100e-003 3.8367800e-002 -1.1002685e-001
-4.1862903e-003 -7.7337000e-003 3.8052420e-002 -1.1487475e-001
1.2545750e-002 2.6160700e-003 3.9862060e-002 -7.2420927e-002
2.0822535e-002 2.4288600e-003 4.2126420e-002 -1.0766870e-001
0.0000000e+000 9.4405800e-003 4.2151330e-002 -7.2156654e-002
4.9536237e-002 -1.7954300e-003 4.3050990e-002 -2.3439270e-002
2.4539954e-002 1.2022910e-002 4.7937500e-002 1.7143633e-002
3.2487488e-002 1.9572770e-002 5.5869450e-002 4.3998867e-002
4.0424460e-003 1.6685520e-002 6.1945440e-002 1.1095101e-001
3.2193333e-002 3.2539450e-002 6.7727470e-002 1.6468453e-001
1.2006012e-002 3.5201310e-002 7.1912720e-002 1.3677216e-001
2.7874677e-002 3.7039760e-002 7.5673690e-002 5.3967852e-002
3.5555790e-002 3.5138310e-002 7.6299660e-002 7.8785098e-002
1.9617499e-002 3.1186950e-002 7.4862960e-002 6.9827010e-002
2.3414701e-002 2.4970160e-002 6.9495430e-002 6.9672743e-002
4.2574180e-002 2.4827660e-002 5.9642720e-002 4.7022380e-002
-7.7071315e-003 2.3163600e-002 4.8805600e-002 6.0533558e-002
3.4565746e-002 1.2748140e-002 4.4520330e-002 8.1439675e-002
-3.8259209e-003 4.3704300e-003 3.7270110e-002 9.1335794e-002
1.5281776e-002 1.0748000e-003 3.4191300e-002 4.5231300e-002
0.0000000e+000 -4.5974100e-003 3.0539670e-002 1.7384089e-002
-3.8149741e-003 -4.8367300e-003 2.9232090e-002 -6.1342316e-002
1.9038589e-002 -6.7502700e-003 2.6831960e-002 -1.1636764e-001
7.5901351e-003 -1.0541150e-002 1.9908810e-002 -7.8502139e-002
7.5757598e-003 -1.6615970e-002 1.7730110e-002 -7.3963776e-002
-7.5757598e-003 -1.2504010e-002 1.8492640e-002 -9.4499495e-002
-1.1390610e-002 -8.9057100e-003 1.9001520e-002 -9.8103899e-002
-1.1423140e-002 -1.4919290e-002 2.0415650e-002 -9.3707967e-002
-3.8149741e-003 -2.8983780e-002 2.0310890e-002 -1.0385401e-001
-1.5296386e-002 -1.4885630e-002 1.2311540e-002 -2.0346282e-001
1.1477770e-002 -1.3444850e-002 6.4108700e-003 -1.0176331e-001
-3.8222650e-003 -1.4303720e-002 2.4277200e-003 -2.1370481e-002
-3.0710324e-002 1.8467700e-003 2.5002200e-003 1.6291144e-002
-1.1577432e-002 -2.8563900e-003 3.2028600e-003 2.2319249e-002
-2.3255879e-002 -5.1632200e-003 3.2515200e-003 4.0313525e-002
-1.9483721e-002 8.6758800e-003 2.7923900e-003 6.8023529e-002
2.7250714e-002 1.8921480e-002 2.4836700e-003 1.1036553e-001
2.3210897e-002 -3.8156400e-003 3.0298900e-003 6.0725020e-002
-1.5458956e-002 4.4871700e-003 3.4790200e-003 3.0310955e-002
7.7369463e-003 -1.7015600e-003 2.9212000e-003 7.1559555e-002
2.6962066e-002 -1.3099770e-002 2.5117800e-003 5.5999927e-002
-1.9240056e-002 -1.4809970e-002 2.7739600e-003 1.2600387e-001
-1.5458956e-002 -2.8001990e-002 2.4979400e-003 1.6726958e-001
1.1599815e-002 -3.5822060e-002 1.1171700e-003 3.0607028e-002
0.0000000e+000 -2.3922890e-002 1.1560000e-003 8.8426859e-003
-2.3233366e-002 -1.7381830e-002 4.9352000e-004 3.3442868e-002
-1.5564222e-002 -3.0031880e-002 2.6739000e-004 -2.4124577e-002
-1.5625020e-002 -4.8769480e-002 2.7065000e-004 -9.4536847e-002
-1.9617499e-002    NaN     3.0385000e-004 -6.6714350e-002
-2.3668708e-002    NaN     2.5648000e-004 -8.2409878e-002
   NaN        NaN     1.3628300e-003 -7.2878800e-002
   NaN        NaN     2.7710900e-003 -6.8528752e-002
   NaN        NaN     2.1044500e-003 3.0306459e-002
   NaN        NaN     1.5967000e-004 5.5602778e-002
   NaN        NaN        NaN        NaN
   NaN        NaN        NaN        NaN
