6.8769602e-002 1.0195140e-002 9.3351120e-002 1.7680726e-002
8.9891423e-002 4.2451400e-003 1.1250660e-001 4.7317350e-002
1.2039212e-001 -1.4657710e-002 1.2098150e-001 1.3606099e-002
1.1687418e-001 -2.6895950e-002 9.3455430e-002 8.9968867e-003
9.3147806e-002 -4.5912090e-002 6.3054440e-002 2.5995033e-002
5.0826605e-002 -4.4027840e-002 5.4178020e-002 2.8128105e-002
7.0089403e-002 -3.4288240e-002 6.1591310e-002 -1.3500926e-002
6.8882391e-002 -2.9288370e-002 5.4154340e-002 -2.5624707e-002
4.8485442e-002 -1.3430310e-002 4.8279120e-002 -2.0890337e-002
3.8369599e-002 -1.2340750e-002 5.1976920e-002 -2.3740469e-002
5.6872996e-002 -1.4893640e-002 5.2836960e-002 -3.4050507e-002
7.4594236e-002 -1.4205940e-002 4.8758700e-002 -5.2767922e-002
6.4147996e-002 -9.4965300e-003 4.6593340e-002 -4.6003551e-002
6.3135471e-002 1.0256000e-003 5.1587920e-002 -4.2301622e-002
4.4494341e-002 1.1271430e-002 5.8165220e-002 -3.4557348e-002
8.7530845e-002 4.3921400e-003 6.5133700e-002 -1.2136191e-002
6.0151509e-002 -7.0229000e-004 6.7593340e-002 1.3028311e-002
7.6031856e-002 2.9761680e-002 7.2841760e-002 2.1124226e-002
6.6391566e-002 3.0981510e-002 8.0961950e-002 6.3120807e-002
8.1469211e-002 3.5343520e-002 9.5814130e-002 7.4722049e-002
7.1930010e-002 2.8784630e-002 1.0073780e-001 5.4731686e-002
9.3937781e-002 2.0470330e-002 1.0180660e-001 3.4145898e-002
8.4213637e-002 1.9032120e-002 1.0941410e-001 4.4180363e-002
8.2477149e-002 1.4083840e-002 1.3580980e-001 2.7647100e-002
8.8076953e-002 9.2396400e-003 1.5063630e-001 2.2607972e-002
8.6179276e-002 -1.9187210e-002 1.2667910e-001 3.3308871e-002
9.1312130e-002 -2.8828790e-002 9.8254340e-002 7.2520081e-002
1.0283343e-001 -2.0113420e-002 1.5853370e-001 6.7638791e-002
1.0685109e-001 -9.5662200e-003 1.6591330e-001 5.7941753e-002
7.1838666e-002 -2.4735720e-002 1.7788130e-001 2.1155425e-002
7.6925448e-002 -2.0994750e-002 1.7595220e-001 -1.7277595e-002
6.9238550e-002 -3.9815080e-002 1.3589670e-001 2.8565985e-002
5.5771624e-002 -6.2684180e-002 1.4208220e-001 6.7314670e-003
4.8930274e-002 -6.5490280e-002 1.4512640e-001 -2.0640495e-002
5.4340458e-002 -7.6124510e-002 1.1014240e-001 -6.4565471e-002
4.7690580e-002 -8.1007650e-002 9.2876080e-002 -4.7147078e-002
2.3633747e-002 -7.5867210e-002 8.6581120e-002 -8.3511358e-003
4.1026001e-002 -5.9560090e-002 8.8014290e-002 -1.5637459e-002
3.4833312e-002 -4.9405100e-002 9.4601090e-002 -3.6911584e-002
3.4532589e-002 -3.7588970e-002 9.4309780e-002 -2.7649967e-002
4.5584539e-002 -2.4274210e-002 9.6887920e-002 -2.5389609e-002
3.3850696e-002 -1.5425620e-002 1.0554070e-001 -2.8437361e-002
2.7991717e-002 -1.4555200e-002 1.1390980e-001 -7.5361324e-002
2.7797193e-002 -1.4719820e-002 9.2717390e-002 -9.3919611e-002
4.4077581e-002 -1.3959950e-002 8.4758890e-002 -1.3279987e-001
2.7303860e-002 -1.3605730e-002 7.9204400e-002 -1.1857123e-001
2.1709687e-002 -6.7682100e-003 7.8997830e-002 -9.8502445e-002
2.6972456e-002 -6.9584700e-003 8.1072830e-002 -5.6872401e-002
1.6096601e-002 -6.1233300e-003 7.8255560e-002 -2.1583796e-002
1.6032086e-002 -1.0052930e-002 6.9192310e-002 9.5332712e-003
2.6578171e-002 -8.5791600e-003 6.2101090e-002 2.5123522e-002
2.6402736e-002 -1.0572840e-002 6.2691310e-002 9.2413686e-003
3.6673472e-002 -1.0452180e-002 6.2240000e-002 3.6377649e-002
3.1168989e-002 -7.0103400e-003 6.6489010e-002 5.4571752e-002
2.5789902e-002 -5.8047900e-003 6.8326080e-002 3.0871392e-002
3.5828774e-002 4.2684300e-003 6.9191300e-002 6.5507784e-002
2.5396911e-002 3.8733600e-003 6.6651640e-002 8.6597347e-002
4.0302608e-002 8.6686300e-003 7.1559340e-002 8.7146322e-002
4.4860283e-002 6.9619400e-003 7.9810870e-002 2.9807974e-002
2.9629765e-002 1.3277360e-002 8.4713050e-002 5.6554698e-002
4.4037142e-002 1.8913060e-002 9.4426660e-002 3.2173602e-002
3.8741223e-002 1.7859970e-002 9.7010990e-002 -9.0132307e-003
2.8811649e-002 1.5526780e-002 9.0672840e-002 -2.2768825e-002
2.8605605e-002 1.1349650e-002 8.6270650e-002 -1.7127628e-002
4.7226050e-002 1.6381840e-002 8.2503330e-002 -1.7713262e-002
4.6674975e-002 1.1256060e-002 8.2426380e-002 -2.6454870e-002
3.6951764e-002 2.5313200e-003 8.1563040e-002 1.6508539e-003
3.2055123e-002 -1.1910100e-002 7.7426090e-002 3.4943591e-002
4.9859002e-002 -2.2805670e-002 6.4325560e-002 2.5983310e-002
2.6936129e-002 -2.3298190e-002 5.8624170e-002 -2.0938329e-002
2.6755953e-002 -2.6659590e-002 5.6454350e-002 -2.3511948e-002
2.2160722e-002 -2.6961010e-002 4.8167390e-002 1.2568061e-002
3.0820185e-002 -2.3428470e-002 4.0225280e-002 7.8507678e-003
2.1869929e-002 -1.9747920e-002 3.7705490e-002 5.2040805e-003
1.3064791e-002 -1.8211960e-002 3.2570650e-002 3.7240757e-002
2.1680270e-002 -1.1939520e-002 3.0360870e-002 -8.8193753e-003
3.4445853e-002 -1.8708940e-002 3.0403330e-002 -3.0943100e-002
2.1378993e-002 -1.9161180e-002 3.0000000e-002 -2.5849596e-003
1.7021302e-002 -2.1365470e-002 3.0596740e-002 -1.4144168e-002
2.5396911e-002 -1.3197470e-002 2.9896740e-002 -2.7559573e-002
2.1041606e-002 -1.1356940e-002 3.2090000e-002 -3.0669429e-002
1.6753951e-002 -4.0564900e-003 3.9374730e-002 -1.6226553e-002
2.5000081e-002 -5.4660100e-003 4.4840220e-002 1.2571977e-002
1.6580335e-002 -4.2911000e-004 5.1653260e-002 1.9487444e-002
2.8851233e-002 -3.8068100e-003 5.8063340e-002 2.5278831e-003
2.0481356e-002 -8.8163300e-003 6.0198900e-002 6.7572146e-002
1.6309910e-002 -8.4935100e-003 5.7966300e-002 4.6636152e-002
2.0294310e-002 -8.2897800e-003 5.7191300e-002 2.7224607e-002
2.4218036e-002 -8.8227700e-003 5.3664830e-002 1.4256362e-002
1.2054253e-002 -7.9960000e-005 5.2432970e-002 1.5033712e-002
2.0010047e-002 -3.5904000e-003 5.3067390e-002 2.2069685e-002
1.5936276e-002 -1.7193300e-003 5.2796740e-002 2.0707762e-002
2.7736614e-002 -3.1800000e-004 5.2888880e-002 -1.2302538e-002
1.9694771e-002 4.8644800e-003 5.5230770e-002 -8.4739587e-003
1.1770484e-002 6.2513800e-003 5.5298910e-002 -1.0040922e-002
1.5640294e-002 4.2960800e-003 5.5065220e-002 -2.7975820e-002
1.1690218e-002 1.0544750e-002 5.5203330e-002 -5.7884442e-002
7.7745408e-003 7.5696900e-003 5.4998900e-002 -5.4234921e-002
1.5503895e-002 8.4268700e-003 5.5369570e-002 -6.5451859e-002
1.1588613e-002 1.4739530e-002 4.8603260e-002 2.7086897e-004
1.5399442e-002 1.2481220e-002 4.7324440e-002 6.5451120e-003
1.1510799e-002 7.1164800e-003 4.7465930e-002 -4.0067840e-003
1.5296386e-002 9.7633400e-003 5.0919560e-002 1.5288369e-002
1.5238114e-002 2.2084150e-002 5.3054350e-002 4.3732845e-002
3.7843234e-002 2.0159650e-002 5.6754940e-002 3.2028470e-002
2.2535271e-002 2.6571010e-002 6.2732970e-002 1.4907049e-002
1.8682892e-002 2.2224190e-002 6.5233700e-002 9.9989809e-003
1.8596035e-002 1.9336040e-002 6.4729350e-002 -8.8723054e-003
2.9574996e-002    NaN     5.5967780e-002 -1.1138100e-002
2.5699951e-002    NaN     4.3253850e-002 -3.1163861e-002
   NaN        NaN        NaN        NaN
   NaN        NaN        NaN        NaN
