  1.1349003e-003  1.1065759e-002  1.0950000e-001  2.0546397e-002
  1.1386987e-002  8.4859233e-003  1.0880000e-001  7.4512566e-003
  1.7660344e-002  8.9330478e-003  1.1250000e-001  1.0553354e-002
  1.9146256e-002 -1.2298758e-002  1.0530000e-001  3.5817012e-003
 -9.0042147e-003 -2.8491343e-002  8.6100000e-002 -2.8678414e-002
 -6.4616317e-003 -3.0993939e-002  6.8600000e-002 -3.2124687e-002
 -2.4159832e-002 -2.7440694e-002  6.2300000e-002  4.5261001e-003
 -2.3948029e-002 -2.1266760e-002  6.2500000e-002  1.8623259e-002
 -1.0983693e-002 -1.2473075e-002  6.5600000e-002  3.5604160e-002
  1.1978965e-002 -3.7251710e-003  7.9900000e-002  4.1271002e-002
  2.3314425e-002  1.9999347e-004  9.0000000e-002  2.9929561e-002
 -9.3144997e-003  9.6536179e-003  9.2900000e-002 -1.2101747e-003
  4.3023127e-004  7.2092024e-003  9.8900000e-002  3.4510935e-003
  6.9019533e-003  4.3299068e-003  9.1300000e-002  2.1481230e-003
 -8.1450327e-003  1.4992513e-003  8.7300000e-002  5.3738331e-003
 -1.0099978e-002  6.1473058e-003  8.8900000e-002  1.2836873e-002
 -4.4026398e-003  5.3384402e-003  7.9900000e-002  2.2535902e-003
 -7.5760876e-004  1.1461835e-002  7.7300000e-002 -5.0080288e-005
  4.0356452e-003  1.0416459e-002  8.7200000e-002  1.1838061e-002
 -2.3843982e-002  1.7445844e-002  8.8400000e-002 -2.0332746e-002
 -6.2573977e-004  1.5454418e-002  7.7500000e-002 -3.9420340e-002
 -8.8253438e-003  2.5569893e-002  8.8200000e-002 -3.4362110e-002
  2.0362900e-002  2.6854337e-002  1.0170000e-001 -4.6855302e-002
  1.3189449e-002  3.2614381e-002  1.1770000e-001 -9.2791130e-002
  2.2873145e-002  3.6320206e-002  1.2410000e-001 -1.0252975e-001
  1.6294788e-002  2.4641360e-002  1.2870000e-001 -8.0919255e-002
  1.1909881e-002  1.9270115e-002  1.1950000e-001 -8.0615799e-002
 -1.1115008e-003  1.1590029e-002  1.2360000e-001 -2.1208122e-002
  1.1688803e-002  5.7991637e-003  1.3050000e-001  3.4109403e-002
  1.0416689e-002  6.8833482e-003  1.5010000e-001  6.1911113e-002
  2.5036604e-002  5.5671227e-003  1.5540000e-001  5.8681806e-002
  3.4312128e-002  4.5623711e-004  1.4860000e-001  1.4322532e-002
  2.5414434e-002 -3.1602484e-003  1.3830000e-001  2.6639553e-002
  4.1189742e-003 -5.6962240e-003  1.3890000e-001  1.2555383e-002
  3.7875115e-004 -1.4232710e-002  1.2900000e-001  2.4688571e-002
 -2.7919685e-004 -2.0343055e-002  1.2170000e-001  6.8258025e-003
  2.2858937e-002 -2.0477671e-002  1.1490000e-001 -3.4099244e-002
 -5.7683709e-003 -1.7871426e-002  1.1290000e-001 -4.5109879e-003
  6.5512811e-003 -2.1016802e-002  1.1600000e-001  3.0099072e-002
  5.2143171e-003 -1.8992297e-002  1.1660000e-001  3.8939830e-002
  2.6261331e-003 -1.2900383e-002  1.1100000e-001  3.4157638e-002
 -1.6891679e-002 -2.5035078e-002  1.0640000e-001  3.1510558e-002
 -1.8217198e-002 -2.2433604e-002  1.0240000e-001  5.7395785e-002
 -1.3355279e-002 -2.2322179e-002  9.9700000e-002  7.9046414e-002
 -1.3921674e-002 -2.5961555e-002  9.7000000e-002  9.7029923e-002
 -1.7303316e-002 -2.1618670e-002  9.7000000e-002  9.4870949e-002
 -2.6681419e-003 -1.7426466e-002  9.1300000e-002  7.0679422e-002
 -4.8901159e-003 -1.7208222e-002  8.5200000e-002  3.4407615e-002
  9.5733961e-003 -2.7748387e-002  8.6300000e-002 -2.5034008e-002
 -1.6005969e-002 -1.5567253e-002  7.8800000e-002 -1.7307074e-002
 -1.7354377e-002 -1.4960868e-002  7.6200000e-002 -4.7727447e-002
 -2.9002467e-002 -1.4061704e-002  7.7200000e-002 -7.8833121e-002
 -1.9578170e-002 -2.7335089e-002  7.8400000e-002 -1.0092305e-001
 -2.7125461e-002 -1.6142925e-002  8.0500000e-002 -7.0830966e-002
 -3.3238426e-002 -1.1902080e-002  8.1200000e-002 -5.1631993e-002
 -1.2907909e-002 -4.0000859e-003  8.1200000e-002 -6.8654426e-002
 -1.6243775e-002 -2.2836214e-003  7.2300000e-002 -5.3004415e-002
 -1.8507710e-002 -9.6674696e-004  7.0600000e-002 -1.6983099e-002
 -1.5816354e-002  4.9029675e-003  7.7900000e-002  3.3514285e-002
 -7.7615330e-003  1.1499382e-002  8.2300000e-002  2.8807332e-002
 -9.4267399e-004  1.4154256e-002  9.1600000e-002  5.2945616e-002
 -1.8812536e-002  1.8882421e-002  9.3200000e-002  6.3553226e-002
 -7.6906980e-003  1.6136645e-002  9.7600000e-002  5.8504237e-002
  4.7853570e-003  2.5088640e-002  1.0730000e-001  1.5926126e-002
  5.3824440e-003  3.2440364e-002  1.0860000e-001 -3.2397937e-002
  1.2378630e-003  3.1088849e-002  1.0290000e-001 -3.9437351e-002
  1.8700098e-004  3.2949323e-002  1.0200000e-001 -3.3034971e-002
 -8.7259510e-003  3.1039918e-002  1.0690000e-001 -4.4363048e-002
  1.7647046e-002  3.0901482e-002  1.0800000e-001 -3.4540588e-002
  1.8782006e-002  3.2550237e-002  1.0190000e-001  2.7887179e-002
  1.0548069e-002  3.0822981e-002  1.0240000e-001  3.2019362e-002
  1.3414902e-002  2.8320385e-002  1.0460000e-001  2.1408708e-003
  2.8044089e-003  3.3203050e-002  1.0580000e-001 -1.6555503e-003
 -8.1322055e-005  2.4693264e-002  1.0710000e-001 -5.4377209e-003
  7.8666869e-003  1.9881819e-002  1.1650000e-001 -5.6051970e-002
 -1.5993971e-003  1.0602423e-002  1.1120000e-001 -3.6282222e-002
  8.6183579e-003 -6.7145522e-003  1.0420000e-001 -7.7039974e-003
  7.7620459e-003 -1.0248058e-002  8.8200000e-002  7.4715125e-003
 -6.6517011e-003 -1.1031183e-002  7.9500000e-002  4.9901520e-002
 -6.0722509e-004 -1.1863889e-002  7.2200000e-002  5.0535071e-002
  3.9304449e-003 -1.1558864e-002  6.6800000e-002  6.6307232e-002
 -8.8582401e-003 -7.3924099e-003  6.2200000e-002  4.3934043e-002
 -3.2715291e-003 -3.9068755e-003  6.2400000e-002  1.5095216e-002
 -2.7881111e-004 -2.2590810e-003  6.3700000e-002  1.6461447e-002
  6.5514919e-003 -2.6807566e-003  6.8100000e-002 -4.2564281e-003
  1.4720753e-002 -6.0473821e-003  7.0300000e-002 -1.5934943e-002
  8.2377629e-003 -7.9043276e-003  6.5800000e-002 -3.4097390e-002
  3.1051749e-003 -1.1116453e-002  6.3900000e-002 -5.0612388e-002
  1.2684859e-003 -1.0415659e-002  5.5300000e-002 -4.8624656e-002
  8.2865859e-005 -1.2539634e-002  5.0500000e-002 -3.5195988e-002
 -3.6276915e-004 -1.1885090e-002  4.9100000e-002 -4.9607372e-002
  2.0416838e-003 -1.3998595e-002  4.5000000e-002 -3.9934394e-002
 -5.4436842e-003 -1.6803511e-002  4.3600000e-002 -1.5700170e-003
 -2.9993992e-003 -8.7651064e-003  4.2400000e-002  2.3685701e-002
  6.7964298e-003 -6.2252120e-003  4.2400000e-002  6.1957091e-002
  8.1074628e-003 -4.9858475e-003  4.3400000e-002  1.5436760e-002
  2.8196158e-003 -1.4822231e-003  4.1100000e-002  1.9573547e-002
  6.2550668e-003 -1.2678986e-003  3.9900000e-002  2.6488315e-003
  8.2841308e-003  2.3979586e-004  3.8900000e-002 -3.2462573e-002
  4.7989048e-003 -3.1576997e-003  3.2600000e-002 -4.8013739e-002
             NaN             NaN             NaN -1.7653755e-002
             NaN             NaN             NaN  2.6462319e-002
             NaN             NaN             NaN  3.0797354e-002
             NaN             NaN             NaN  5.6081132e-002
             NaN             NaN             NaN             NaN
             NaN             NaN             NaN             NaN
             NaN             NaN             NaN             NaN
             NaN             NaN             NaN             NaN
             NaN             NaN             NaN             NaN
             NaN             NaN             NaN             NaN
             NaN             NaN             NaN             NaN
             NaN             NaN             NaN             NaN
